# 3D point list with one line of data per point:
#   POINT3D_ID, X, Y, Z, R, G, B, ERROR, TRACK[] as (IMAGE_ID, POINT2D_IDX)
# Number of points: 111, mean track length: 2
59 10.076156279741809 3.629534154974368 33.016002780016017 149 197 235 0.25032056277602022 274 350 285 333
58 12.569287608887121 1.0369751739128223 33.897032334247648 195 198 203 0.020884502462462904 274 342 285 228
57 13.492757303331606 -0.60803901363565649 33.014175098307106 157 158 156 0.17632801088280436 274 338 285 221
56 13.456224959452067 -1.0978254030660219 33.024011613122845 27 32 36 0.16142359060607969 274 337 285 220
55 9.9936696769369391 -4.2585802557601209 32.899457198093067 28 30 27 0.2494697416726957 274 335 285 17
54 9.9936696769369391 -4.2585802557601209 32.899457198093067 28 30 27 0.2494697416726957 274 334 285 16
53 10.921687830613227 6.8473325437811017 29.928404363256739 58 63 69 0.37466214270409659 274 311 285 290
52 15.19556769136989 7.0515808723616171 33.654782138406453 71 71 71 2.6472115221498136 274 307 285 351
51 8.9626636999522766 6.5403305185387914 31.152224312902597 184 111 17 0.1023834247304129 274 304 285 165
50 7.5884903328048896 5.0999108571196281 33.278818443745571 188 186 199 0.27753557226004355 274 285 285 134
49 5.6759343515602954 4.9868182425176411 33.472576142091597 37 44 70 0.1617247178674564 274 278 285 344
48 4.2130063865485408 4.8370290249354877 32.284763966839542 23 30 40 0.077595159027077407 274 276 285 270
47 11.897328049453495 4.5140194874257125 33.461492716829582 48 3 0 0.069275618651618548 274 275 285 254
46 3.9105282678372557 4.640681068653814 31.230703172343944 29 36 45 0.26092128345098781 274 274 285 271
45 4.5276696023423115 4.7929962689449201 33.547729677158948 16 20 31 0.39523506937256025 274 271 285 261
44 11.740754763179984 4.2807672760181914 33.381106475951341 40 11 1 0.30864482867914933 274 270 285 250
43 12.617346792169753 4.1200655620687652 33.3082624705958 245 246 237 0.22229787403534912 274 265 285 89
42 5.1431056184389643 4.5895642020013172 33.94403309322329 18 18 28 0.13197910013722214 274 263 285 258
41 4.5157130502132858 4.6191938163182815 33.883969246700836 18 19 24 0.10812788074760099 274 262 285 260
40 4.5157130502132858 4.6191938163182815 33.883969246700836 18 19 24 0.10812788074760099 274 261 285 259
39 10.187697283699187 3.9822407173652552 32.952642613342725 24 28 30 0.41801806034396083 274 251 285 246
38 12.50814704224514 3.8072389141816512 33.190249226041736 249 252 253 0.12387953032006672 274 246 285 80
37 16.553741598883057 3.5156662117632957 32.531528833546581 98 23 0 0.47442384793470815 274 242 285 72
36 12.615361699305584 3.7381447968829917 33.152832555965325 6 7 2 0.54546122983679801 274 241 285 239
35 12.073607823587858 3.7063139896293631 33.36591011313584 13 3 2 0.16213860869748645 274 239 285 332
34 10.376862836547637 3.6171409995754917 32.867343964565748 155 211 252 0.55672858824506033 274 236 285 335
33 12.18048485072983 3.5306941833674403 33.213163869557036 219 213 217 0.015389146899212724 274 235 285 235
32 9.8028810346013184 2.2300852470355661 33.618764002807524 34 26 15 0.19973805765096542 274 227 285 231
31 13.698135088004696 -0.56388141450535523 33.123410982464833 42 9 0 0.2320650422344262 274 214 285 34
30 -4.0296204079566316 -5.0392407511483386 35.582859921728442 207 169 148 0.18454928532096995 274 209 285 216
13 12.468254519238455 3.5639389842817604 33.091601801028681 218 222 223 0.22851674482588219 274 78 285 73
12 6.5631116012985311 3.0773249937490235 35.446102370401817 47 38 29 0.13383553778495308 274 57 285 69
11 9.6665955433138784 1.7561489032658324 33.617504323724738 28 29 24 0.45074679609260571 274 51 285 230
10 4.7656697800404189 1.8474315405610915 36.169205357936029 80 69 50 0.23085884888037636 274 50 285 59
9 12.670379364756215 1.0968665647765712 33.88718848382188 9 11 14 0.16806176016586388 274 41 285 45
8 12.676498480475907 0.90730596430933763 33.887690825932111 4 6 13 0.072585392071126437 274 39 285 42
7 12.676498480475907 0.90730596430933763 33.887690825932111 4 6 13 0.072585392071126437 274 38 285 41
6 13.207157882643173 -0.51732141145116151 33.122078415927056 221 220 223 0.11912868790526177 274 24 285 223
5 13.725584748613748 -0.66185713808849156 33.004625227467791 170 151 100 0.47816333634241293 274 22 285 33
4 13.238188553556636 -0.94871071944854546 33.119305614166016 211 206 207 0.1722666942994745 274 21 285 31
3 13.579280479866219 -1.1523556006710498 32.974082560021422 209 212 219 0.09539803730571754 274 18 285 26
2 13.344061917384584 -1.1658276437121085 33.091499507401572 208 209 214 0.17657458694894435 274 17 285 27
1 -0.44569344937954108 -2.1803974963402606 23.431876109206911 5 12 20 0.11932208965049537 274 10 285 22
14 12.468254519238455 3.5639389842817604 33.091601801028681 218 222 223 0.22851674482588219 274 79 285 74
15 12.159222947446423 3.7834562390010675 33.240672129990699 222 220 223 0.0052807438066213522 274 85 285 241
16 12.159222947446423 3.7834562390010675 33.240672129990699 222 220 223 0.0052807438066213522 274 86 285 242
17 6.0348933225762291 4.5615447231781019 33.896651874016072 229 228 226 0.015691717383669285 274 105 285 112
18 5.8649450590314274 4.91057157562215 33.590099091443491 238 249 254 0.16854646647280042 274 115 285 127
19 5.26690753074325 5.052065439323691 33.35354631058869 233 245 254 0.036395247043548781 274 117 285 268
20 5.8273375236419476 5.3842610531962487 33.040748962250433 214 226 242 0.08954190984237817 274 123 285 149
21 10.162375600696071 5.2261803637842572 32.958717126132029 63 20 1 0.035413912816332938 274 125 285 277
22 11.060681124525996 5.3653286188294445 32.614671630406086 253 236 214 0.18129988288449106 274 130 285 151
83 9.0387818878885717 4.9684402287935407 33.656448896096251 195 124 41 0.10575986967939094 274 448 285 485
24 15.86854375409348 5.4169206257741926 32.839239817093251 98 95 88 0.46979135173702224 274 132 285 145
84 8.8851528401699476 6.5929501035762739 31.408390432299779 196 121 26 0.03835013602393092 274 455 285 458
25 2.4353219462153226 5.6426674287048213 26.667865073116744 29 13 0 0.47235785020199528 274 136 285 352
85 7.5588335718655957 9.1971127781891369 30.994066286496427 122 136 147 0.36297858616995465 274 460 285 491
26 15.831028205950876 6.0980892393968187 32.9496147345765 131 67 9 0.63311793825624296 274 142 285 158
86 13.087963709909948 0.13894152270452251 33.188889589542747 44 43 49 1.0354345098446098 274 465 285 438
27 10.836486215935594 6.3025796274438264 30.627202603210964 71 78 86 0.039107872390110321 274 149 285 163
87 9.6697241849035613 2.0839472816006515 33.622183929739336 9 7 3 0.19329411422282664 274 466 285 472
28 9.102277200033523 6.6660016474197503 31.021753100548313 190 119 36 0.22087876479393623 274 151 285 170
88 6.7395489083210895 2.7842036722174779 35.755344890514699 250 227 186 0.18089550202155971 274 469 285 476
29 -3.880346250528953 -5.15790505023375 35.607073236551464 190 150 134 0.048768085919592558 274 206 285 215
89 6.7395489083210895 2.7842036722174779 35.755344890514699 250 227 186 0.18089550202155971 274 470 285 477
90 9.3415235435003439 4.2623990893412333 33.407443130336752 245 219 124 0.10158430792396544 274 472 285 484
91 13.580144260940378 -0.88348695852282655 33.087883856858255 6 7 10 0.14314775464750196 274 482 285 492
92 13.580144260940378 -0.88348695852282655 33.087883856858255 6 7 10 0.14314775464750196 274 483 285 493
93 13.260918606311963 -0.20243554794533825 33.028817424028396 23 23 25 0.19245529384425081 274 484 285 494
94 13.260918606311963 -0.20243554794533825 33.028817424028396 23 23 25 0.19245529384425081 274 485 285 495
95 14.305387142381935 0.56271741417438692 32.982755476896351 175 157 152 0.45963016030475118 274 486 285 496
96 11.982197600031881 1.1703476105839783 34.535114151006823 141 157 180 1.0159892997753603 274 491 285 498
97 5.703237821162821 1.4826200183153284 36.354218611221434 26 27 31 0.35196963342924975 274 494 285 499
98 6.1662964354785892 3.1617998096217468 35.622838019609659 57 57 55 0.01042352921917495 274 498 285 503
111 11.229987072636778 5.416846693652678 32.622881328233639 246 229 228 0.58822421842071793 274 545 285 560
110 9.909323359728532 4.5817135402046123 33.143591417113548 31 25 11 0.32948939490235862 274 544 285 556
109 6.8390480332413164 9.1650521654023329 31.423181310498872 0 0 0 1.3792725204086822 274 538 285 562
108 10.139105272277991 3.1408222036343432 34.001064444198384 242 227 208 0.71007003515674683 274 531 285 554
107 10.139105272277991 3.1408222036343432 34.001064444198384 242 227 208 0.71007003515674683 274 530 285 553
106 13.807355346399305 0.81014759866350916 33.188232031661776 255 255 246 0.59509811286016168 274 524 285 538
105 11.397403314359334 5.0530880708396708 32.847094208161444 243 227 237 0.37569626001248008 274 518 285 534
104 12.280884191837856 4.2419551632485915 33.406675563767109 3 7 6 0.19475406065772993 274 517 285 532
103 2.8485683700100903 5.946702439974584 26.748315187848984 231 155 53 0.35679512439624617 274 512 285 525
102 2.0234587136127411 2.5541012684156765 26.495777008651174 239 214 173 1.3828830660281115 274 508 285 331
101 12.725190042700826 1.1547687333023835 33.430502187890859 16 14 17 1.8554926925732431 274 507 285 530
100 12.725190042700826 1.1547687333023835 33.430502187890859 16 14 17 1.8554926925732431 274 506 285 529
99 11.803045026238228 3.8141653893485907 33.725457774789639 241 235 222 0.54337481316711711 274 500 285 520
82 9.3185169724138639 3.8383585238050064 34.770309885052939 44 39 45 0.05386815370478451 274 445 285 449
23 15.86854375409348 5.4169206257741926 32.839239817093251 98 95 88 0.46979135173702224 274 131 285 144
81 12.577103502814722 1.4220849836644147 33.788797134416022 7 1 7 0.36181656608789714 274 441 285 470
80 13.622812815146812 -0.35376379545447106 33.041902163473523 242 204 148 0.047486386216943691 274 440 285 406
79 8.9074811248746286 6.6032373590639857 31.456241362847368 195 120 25 0.079134472327332978 274 436 285 459
78 15.771923854491604 5.9417377629976036 32.964209498154808 23 11 1 0.64287506732939093 274 435 285 431
77 5.0856151572455879 5.3814391847071779 33.168837147770049 42 46 48 0.22135536532827838 274 434 285 429
76 6.3130508550059634 4.8210126927287744 33.679180644980704 59 63 76 0.31641228129361454 274 432 285 454
75 5.7598175021129361 4.6642671014630679 33.832225138417435 41 38 51 0.0044893838311793341 274 431 285 427
74 5.2791183996151778 4.5641244015617248 33.898011425693042 60 59 67 0.24436401617811845 274 430 285 425
73 8.4448926571772773 4.1677493469600311 34.533450817824146 236 197 44 0.25911535198253977 274 427 285 423
72 13.577856340497767 1.1468371553864103 33.403627042951676 187 148 102 0.10842588641197236 274 419 285 409
71 15.743257109532044 5.526918626125588 32.886930736839496 15 12 11 0.55895511808225784 274 404 285 392
70 5.6318369834682764 5.5099940682118946 32.934563763271882 31 35 41 0.098359367458458927 274 402 285 394
69 6.9651472114424768 4.5528736601108255 33.450860578904738 244 195 91 0.27878924842922637 274 399 285 426
68 17.259143143957814 3.6888960827870809 32.251926861578163 112 35 0 0.052178494354024565 274 397 285 236
67 7.6116252664607051 3.6891508260630808 35.110928609710989 255 250 157 0.39484986455799886 274 394 285 383
66 12.564119670994181 1.292741693075081 33.943826365466407 3 4 6 0.232226228506766 274 387 285 375
65 2.6530187139988697 6.1174645557819876 26.875134104925436 211 149 76 0.25824443965580202 274 369 285 354
64 15.955598839141761 5.3024106629025347 32.811469357365858 11 7 3 0.54301828706832689 274 362 285 347
63 10.671633521668223 5.2336515613000154 33.100403226772279 216 135 50 0.20715240469950064 274 360 285 139
62 5.3763831665868915 4.9134586300309451 33.504825337910404 26 35 51 0.0046264407652332126 274 355 285 342
61 11.987495670567686 3.9817616981084947 33.393376618603106 253 230 200 0.32986561262562974 274 352 285 244
60 10.252419175309118 3.8349275365506101 33.069090209656281 184 223 252 0.51292830603074546 274 351 285 336
